0.71267 0.51860 0.41788 0.11595 -0.57652 0.80882
0.05501 0.81754 0.40473 -0.49043 0.81281 0.31437
0.27921 0.75775 0.41549 0.38874 0.24625 0.88783
0.00269 0.10009 0.49321 0.07127 -0.12514 0.98958
-0.20656 -0.13906 0.49441 -0.27961 0.36399 0.88844
-0.78949 -0.07927 -0.45861 -0.97137 0.23758 0.00000
-0.49055 -0.31842 0.47886 0.01220 0.04814 0.99877
-0.49055 -0.79672 0.04600 0.04546 0.16949 0.98448
0.33152 0.27945 0.47288 0.12919 -0.21630 0.96774
-0.03467 0.45881 -0.36653 -0.05281 0.95380 0.29577
-0.12436 0.45881 -0.40241 0.11392 0.94673 0.30121
-0.39340 0.21966 0.46571 0.01220 0.04815 0.99877
0.20448 0.04030 0.47647 -0.28435 -0.18933 0.93984
-0.14678 -0.79672 0.05676 0.00170 0.00669 0.99998
-0.40087 -0.67715 0.06513 -0.96413 -0.03357 0.26329
-0.10941 0.10009 0.49441 -0.18885 0.04838 0.98081
0.10732 -0.07927 0.48245 0.29944 0.18470 0.93607
-0.43824 -0.73694 0.05796 0.00170 0.00670 0.99998
-0.04962 -0.25864 0.49321 0.36910 0.21457 0.90428
0.31658 0.63818 0.42505 0.01222 0.04815 0.99877
-0.09446 -0.85651 0.05915 0.00170 0.00669 0.99998
0.66783 0.75775 0.40951 -0.26312 0.51453 0.81611
0.64541 0.33924 0.42147 0.27507 -0.20189 0.93999
-0.18414 -0.49779 0.47886 0.18414 0.46659 0.86509
0.19700 0.63818 0.41907 0.22507 -0.33052 0.91657
0.34647 0.51860 0.43581 0.01222 0.04815 0.99877
-0.70728 0.04030 -0.45980 -0.15109 0.03371 -0.98794
0.13721 0.69796 0.41429 0.24954 0.16665 0.95392
-0.33361 -0.37821 0.48006 0.01220 0.04814 0.99877
-0.34108 -0.19885 0.48723 0.01220 0.04814 0.99877
-0.43077 -0.85651 0.03165 0.01153 -0.89322 0.44948
-0.58771 0.63818 -0.41197 0.69792 0.46859 -0.54160
-0.21404 -0.91630 0.03165 -0.23698 -0.97151 -0.00000
-0.07951 0.45881 -0.27685 0.33612 0.91867 0.20752
-0.60265 -0.67715 0.06633 0.00170 0.00670 0.99998
0.39131 0.75775 0.41310 0.43839 -0.06604 0.89635
-0.50550 0.15988 0.07709 -0.19801 -0.21643 0.95601
-0.40087 -0.01949 0.47647 0.01220 0.04815 0.99877
0.15964 0.45881 0.41668 0.22914 0.20611 0.95132
0.06248 0.51860 0.41310 -0.04067 0.10337 0.99381
-0.22151 0.45881 -0.24576 0.32192 0.94634 0.02858
0.21942 0.21966 0.47647 0.49854 0.24709 0.83091
-0.30372 0.51860 -0.34740 0.35700 0.93325 -0.04000
0.52583 0.45881 0.42744 0.24714 0.48346 0.83975
-0.25140 -0.19885 0.49082 0.20072 0.62891 0.75112
-0.36350 -0.07927 0.47886 0.01220 0.04814 0.99877
0.02511 -0.25864 0.48962 0.01220 0.04814 0.99877
-0.54287 -0.07927 0.07231 0.40440 -0.12722 0.90569
0.12227 -0.49779 0.47767 -0.38766 -0.70982 0.58811
-0.06457 -0.79672 0.06633 0.00170 0.00669 0.99998
-0.16920 -0.61736 0.45495 -0.25222 -0.91983 0.30049
-0.16172 0.15988 0.48723 -0.09233 0.04297 0.99480
0.15964 -0.55757 -0.39643 0.94256 0.08413 0.32328
0.40626 0.33924 0.42147 -0.00198 0.10257 0.99472
0.42868 0.51860 0.42984 -0.72539 0.55065 0.41303
-0.56529 0.27945 0.06274 0.00170 0.00667 0.99998
0.30163 0.21966 0.47527 -0.07819 -0.31336 0.94641
0.06995 0.39903 0.47647 0.33889 0.20215 0.91885
-0.46813 -0.01949 0.45136 0.06127 0.96019 -0.27255
0.21195 0.81754 0.41788 0.01222 0.04815 0.99877
0.01764 0.63818 -0.43947 -0.91194 0.38533 0.14103
-0.83433 -0.25864 -0.45980 -0.97137 0.23758 0.00000
0.23437 0.10009 0.47767 0.01471 0.00318 0.99989
-0.27382 0.33924 0.48245 -0.13653 -0.24138 0.96078
-0.70728 -0.13906 0.05796 0.00173 0.00667 0.99998
0.04753 0.69796 -0.29838 -0.79373 0.58412 0.16971
-0.38593 0.57839 -0.37012 0.23594 0.97177 -0.00000
-0.45319 -0.61736 0.07589 0.17478 -0.41034 0.89503
0.21195 0.33924 0.47408 -0.30908 -0.18061 0.93373
0.68278 0.63818 0.42386 0.01222 0.04815 0.99877
-0.69981 0.21966 0.04241 0.02350 0.29750 0.95443
-0.01225 0.21966 0.48843 -0.02072 0.26646 0.96362
0.09237 -0.79672 0.04241 0.33179 -0.00665 0.94333
-0.54287 0.57839 0.05317 0.00170 0.00667 0.99998
-0.23646 0.45881 0.48125 -0.07741 0.13576 0.98771
0.48099 0.39903 0.42386 -0.01587 0.08979 0.99583
-0.51297 -0.01949 0.06992 -0.15688 0.60525 0.78043
-0.04215 -0.97609 0.03165 -0.23698 -0.97151 -0.00000
0.16711 -0.31842 0.47767 0.01221 0.04814 0.99877
-0.36350 0.45881 0.45614 -0.52439 0.72513 0.44632
-0.50550 -0.43800 0.47647 0.23657 -0.01659 0.97147
-0.78949 -0.31842 -0.46458 0.14184 0.17977 -0.97343
-0.01973 -0.31842 0.48962 0.01220 0.04814 0.99877
0.26426 0.27945 0.47886 -0.08330 0.31267 0.94620
-0.83433 -0.67715 0.05796 -0.77239 -0.56672 0.28677
-0.87170 -0.55757 -0.46698 -0.15464 0.19523 -0.96849
0.60057 0.21966 0.41907 0.03623 0.21593 0.97574
0.15216 -0.19885 0.47647 0.01221 0.04814 0.99877
-0.12436 -0.01949 0.49441 0.15019 0.15968 0.97568
-0.34856 -0.49779 0.47408 -0.16442 0.40633 0.89881
0.09237 0.87733 -0.43589 -0.88662 0.07992 -0.45554
0.49594 0.81754 0.41190 0.23692 0.97153 -0.00000
0.25679 0.39903 0.47169 -0.03191 0.00113 0.99949
-0.16920 -0.31842 0.48484 0.01220 0.04814 0.99877
-0.16920 0.27945 0.48723 0.11553 -0.16887 0.97884
-0.61013 0.57839 0.05437 -0.91991 -0.38854 0.05299
-0.45319 0.10009 0.07589 -0.80941 0.07013 0.58305
-0.58023 0.04030 0.06872 0.00170 0.00667 0.99998
0.06995 0.10009 0.49201 -0.23907 -0.04243 0.97007
-0.45319 0.21966 0.07589 0.15048 0.01823 0.98844
-0.58771 -0.37821 0.07350 -0.64526 0.29343 0.70536
-0.70728 0.21966 -0.45382 -0.97137 0.23758 0.00000
-0.02720 -0.43800 0.48245 0.01220 0.04814 0.99877
0.25679 -0.01949 0.47049 0.01221 0.04814 0.99877
-0.75212 -0.19885 0.05198 0.00173 0.00667 0.99998
0.07743 0.27945 0.48125 0.12269 -0.14066 0.98243
-0.28877 0.10009 0.48125 -0.51254 -0.45659 0.72721
0.01764 -0.49779 0.48125 -0.85288 0.08285 0.51549
-0.23646 -0.07927 0.48962 -0.34422 -0.24904 0.90526
0.04753 0.69796 0.40592 -0.03683 0.27247 0.96146
-0.55781 -0.31842 0.45016 -0.69555 0.71583 -0.06169
-0.48308 -0.13906 0.07948 -0.75915 0.46811 0.45229
-0.35603 -0.31842 0.48484 0.42948 0.89520 0.11904
-0.61760 0.21966 0.06035 0.00173 0.00667 0.99998
-0.82686 -0.31842 0.04959 0.55336 0.28480 0.78274
-0.07204 -0.55757 0.47767 0.45891 -0.17917 0.87023
0.12227 0.81754 0.40831 -0.42624 -0.01971 0.90440
0.12974 0.51860 0.41668 -0.46160 -0.34677 0.81650
-0.60265 0.51860 -0.37610 -0.95902 0.27014 -0.08546
-0.83433 -0.55757 0.05198 0.00173 0.00667 0.99998
-0.26635 0.21966 0.48364 -0.06789 -0.11042 0.99156
-0.66992 -0.67715 0.05796 0.00170 0.00670 0.99998
-0.56529 -0.49779 0.46332 -0.31882 -0.85781 -0.40312
-0.47561 -0.55757 0.45136 -0.18789 -0.98183 -0.02673
-0.00478 0.51860 -0.42034 -0.93593 -0.00931 -0.35206
-0.19162 0.51860 -0.40838 0.23594 0.97177 -0.00000
-0.45319 -0.25864 0.48006 -0.54907 -0.76781 0.33013
0.08490 -0.91630 0.02448 0.91820 -0.13451 0.37258
-0.11688 -0.37821 0.48604 0.01220 0.04814 0.99877
-0.01225 -0.73694 0.06035 0.00170 0.00669 0.99998
-0.71476 -0.73694 0.05557 0.00170 0.00670 0.99998
-0.01225 -0.85651 0.05915 0.00170 0.00669 0.99998
-0.83433 -0.43800 0.05078 0.00173 0.00667 0.99998
-0.04215 0.33924 0.48006 -0.02583 -0.01835 0.99950
-0.81191 -0.19885 0.03404 -0.48253 0.44277 0.75572
-0.55781 -0.55757 0.07829 -0.35231 -0.05381 0.93434
-0.61013 0.39903 0.05437 0.00170 0.00667 0.99998
-0.39340 0.45881 0.06035 0.00170 0.00667 0.99998
-0.48308 -0.13906 0.46451 -0.96934 0.24571 0.00000
0.07743 -0.37821 0.47886 0.77899 0.46644 0.41905
0.08490 -0.19885 0.48125 -0.85214 0.38531 0.35411
0.06995 0.75775 -0.26848 -0.93264 0.35989 -0.02551
0.59309 0.75775 0.41190 0.01222 0.04815 0.99877
0.04006 0.57839 0.40831 0.18143 -0.18080 0.96664
0.15964 -0.61736 0.02448 0.68220 -0.29570 -0.66871
0.01764 -0.07927 0.49082 0.00500 0.13861 0.99033
-0.43077 -0.01949 0.08905 -0.98032 -0.02123 -0.19628
-0.68486 0.33924 0.03763 -0.97137 0.23758 0.00000
-0.78202 -0.61736 0.06155 0.00170 0.00670 0.99998
-0.26635 -0.25864 0.49441 0.31494 -0.48922 0.81332
-0.83433 -0.43800 -0.45861 -0.21130 0.01843 -0.97725
0.39131 0.45881 0.42984 0.01222 0.04815 0.99877
-0.02720 -0.13906 0.49201 -0.15377 0.21842 0.96366
0.04753 0.81754 -0.44306 -0.97091 0.23944 0.00000
0.77246 0.63818 0.41310 0.97327 -0.22965 0.00000
-0.76707 -0.37821 0.05437 0.00173 0.00667 0.99998
-0.11688 -0.49779 0.47527 -0.36289 0.11418 0.92481
0.27921 0.51860 0.42864 0.01222 0.04815 0.99877
-0.94643 -0.67715 -0.47056 -0.36657 0.84409 0.39134
-0.10941 -0.67715 0.07231 0.00170 0.00669 0.99998
-0.62507 0.10009 0.05796 0.00173 0.00667 0.99998
-0.03467 -0.01949 0.49441 -0.29957 -0.23043 0.92583
0.03259 0.75775 0.40473 -0.97091 0.23944 0.00000
0.18206 0.15988 0.48364 -0.22522 -0.02928 0.97387
0.01764 0.04030 0.49201 -0.00041 -0.02452 0.99970
-0.34856 0.04030 0.48364 0.16769 -0.23136 0.95831
0.08490 0.87733 0.40473 0.12052 0.51814 0.84676
-0.28877 -0.85651 0.04720 -0.33356 0.26664 0.90423
-0.61013 -0.49779 0.08068 0.03616 -0.24538 0.96875
0.04006 0.69796 -0.42871 -0.99217 0.11585 0.04670
-0.74465 0.04030 0.04122 -0.99860 0.02751 0.04508
0.56320 0.57839 0.42386 0.01222 0.04815 0.99877
-0.39340 0.33924 0.07111 -0.19879 0.04071 0.97920
-0.70728 0.15988 0.05078 0.00173 0.00667 0.99998
0.18953 -0.49779 0.44897 0.62247 -0.09010 -0.77744
0.05501 0.21966 0.48125 -0.04956 -0.01593 0.99864
0.60057 0.63818 0.42386 0.01222 0.04815 0.99877
0.24184 -0.13906 0.46930 0.97129 -0.23790 0.00000
-0.75960 -0.07927 0.04600 0.27649 0.32783 0.90337
-0.47561 0.27945 0.07111 -0.08337 0.56458 0.82115
0.08490 -0.67715 0.45973 -0.25155 -0.96739 0.02954
0.15216 -0.61736 -0.39164 0.93579 -0.30317 -0.17996
-0.64002 -0.25864 0.06992 0.00173 0.00667 0.99998
-0.11688 -0.25864 0.49201 0.70717 0.44552 0.54902
-0.37845 0.39903 0.44897 -0.82839 0.35883 0.43014
0.51089 0.27945 0.42147 0.00076 0.17236 0.98503
-0.50550 -0.25864 0.08546 -0.74974 0.55040 -0.36736
0.09985 -0.85651 -0.40838 0.99267 0.04878 -0.11053
0.61551 0.51860 0.42625 0.01222 0.04814 0.99877
-0.28877 -0.73694 0.06633 0.00170 0.00670 0.99998
-0.66992 -0.31842 0.06155 0.00173 0.00667 0.99998
0.19700 -0.43800 -0.38925 0.22486 0.97439 0.00000
-0.33361 0.21966 0.47886 -0.07614 -0.02085 0.99688
0.12227 -0.73694 -0.39404 0.93399 -0.35059 0.06897
0.14469 0.93711 0.40951 -0.15039 0.98828 0.02625
0.77993 0.69796 0.41668 0.01222 0.04814 0.99877
-0.16920 0.45881 0.47647 -0.04768 -0.04771 0.99772
-0.43077 0.10009 0.46690 -0.96934 0.24571 0.00000
-0.68486 -0.01949 0.05557 0.00173 0.00667 0.99998
-0.10941 0.39903 0.47647 -0.13435 0.01691 0.99079
0.36889 0.27945 0.42027 -0.07358 0.12573 0.98933
-0.26635 -0.49779 0.47527 -0.20585 -0.17843 0.96218
-0.38593 0.57839 0.05198 0.00170 0.00667 0.99998
0.54078 0.69796 0.41788 0.01222 0.04815 0.99877
0.31658 0.87733 0.41190 0.23692 0.97153 -0.00000
0.67530 0.21966 0.41668 0.97327 -0.22965 0.00000
0.57067 0.33924 0.42505 0.56092 -0.11921 0.81924
-0.20656 -0.43800 0.48006 0.01220 0.04814 0.99877
0.15216 -0.61736 0.45136 0.99302 -0.10066 0.06140
-0.71476 0.10009 -0.45980 -0.97788 0.08099 -0.19283
-0.68486 -0.43800 0.06872 0.00173 0.00667 0.99998
0.18206 -0.49779 0.01969 0.81302 -0.26850 0.51663
-0.22151 -0.79672 0.05198 0.00170 0.00670 0.99998
-0.42329 -0.49779 0.47767 -0.52119 -0.83305 -0.18543
-0.42329 -0.07927 0.47169 0.01220 0.04815 0.99877
-0.61760 -0.07927 0.06513 0.00173 0.00667 0.99998
-0.77454 -0.79672 0.03285 -0.23698 -0.97151 -0.00000
0.72762 0.45881 0.41549 0.97327 -0.22965 0.00000
0.12227 0.15988 0.48962 0.26242 0.04210 0.96404
-0.64002 -0.79672 0.03883 -0.10643 -0.13040 0.98573
0.70520 0.33924 0.41668 0.97327 -0.22965 0.00000
-0.16172 -0.73694 0.07350 -0.14677 -0.61028 0.77847
0.60804 0.45881 0.42625 0.01222 0.04814 0.99877
-0.46066 0.51860 0.05796 -0.08885 0.96009 0.26520
-0.18414 -0.19885 0.49321 0.75055 0.26952 0.60336
-0.34856 0.39903 0.06992 -0.96934 0.24571 0.00000
-0.40087 -0.19885 0.48125 0.01220 0.04814 0.99877
-0.53539 -0.67715 0.06633 0.00170 0.00670 0.99998
-0.88665 -0.67715 -0.46698 -0.27050 0.05620 -0.96108
-0.69234 -0.19885 0.06155 0.00173 0.00667 0.99998
-0.58023 0.51860 0.05796 0.00170 0.00667 0.99998
-0.43077 -0.31842 0.48125 0.76109 0.43650 0.47980
-0.03467 0.45881 0.47527 -0.06044 0.22954 0.97142
0.04006 0.33924 0.48125 -0.14061 -0.17914 0.97372
-0.25140 0.15988 0.48125 -0.37825 0.45633 0.80541
0.41373 0.69796 0.41788 -0.46164 -0.31264 0.83015
-0.18414 0.33924 0.48364 0.35191 -0.08264 0.93238
0.54078 0.21966 0.41549 0.02003 0.21556 0.97628
-0.58023 0.15988 0.06035 0.00170 0.00667 0.99998
-0.34108 -0.67715 0.06633 0.00170 0.00670 0.99998
0.17458 -0.07927 0.47527 -0.88171 -0.10896 0.45903
-0.34108 -0.13906 0.48364 0.01220 0.04814 0.99877
0.42121 0.21966 0.41907 0.14893 -0.96362 -0.22195
-0.52045 0.45881 0.06155 0.00170 0.00667 0.99998
-0.05709 -0.37821 0.48364 0.01220 0.04814 0.99877
0.49594 0.51860 0.43462 0.01222 0.04815 0.99877
0.29416 0.69796 0.42027 0.01222 0.04815 0.99877
-0.62507 -0.61736 0.07231 0.00170 0.00670 0.99998
-0.43824 0.57839 -0.26729 0.23594 0.97177 -0.00000
-0.22898 0.51860 0.09981 0.44892 0.89351 -0.01056
-0.90907 -0.61736 0.03524 -0.85126 -0.50371 0.14708
-0.37845 0.27945 0.46451 0.01220 0.04815 0.99877
0.36142 0.33924 0.45016 0.01222 0.04815 0.99877
0.04006 -0.85651 0.04959 -0.11691 0.72188 0.68208
0.09985 -0.55757 0.47647 0.25205 -0.65987 0.70784
-0.74465 -0.49779 0.06274 -0.78904 0.60208 0.12211
-0.16920 0.45881 0.09383 0.28552 0.94818 -0.13944
0.13721 0.45881 0.46451 0.01199 0.14442 0.98944
-0.31866 -0.25864 0.48723 0.01220 0.04814 0.99877
-0.06457 -0.19885 0.49560 0.40252 0.14888 0.90322
-0.32614 0.33924 0.47527 0.25776 0.30372 0.91723
-0.28877 -0.07927 0.48364 0.01220 0.04814 0.99877
0.20448 0.57839 0.42147 0.10556 -0.65930 0.74443
0.30163 0.39903 0.44418 0.01222 0.04815 0.99877
0.07743 0.45881 0.47288 0.02873 -0.09234 0.99531
-0.01225 0.57839 0.40353 -0.97091 0.23944 0.00000
-0.10193 -0.07927 0.49799 -0.02211 0.42320 0.90576
-0.63255 0.45881 0.05078 0.00173 0.00667 0.99998
0.11479 -0.31842 0.48245 0.01220 0.04814 0.99877
-0.28130 -0.01949 0.48006 0.01220 0.04814 0.99877
-0.48308 0.39903 0.06633 0.59920 0.30761 0.73915
-0.48308 -0.85651 0.02806 -0.93384 -0.11134 0.33991
-0.62507 -0.13906 0.06394 0.00173 0.00667 0.99998
0.08490 -0.01949 0.48245 0.34169 0.17611 0.92316
-0.71476 -0.55757 0.06155 0.61580 -0.78780 0.01268
0.72014 0.75775 0.41310 0.01222 0.04815 0.99877
-0.28877 0.45881 0.47767 -0.29814 0.27987 0.91257
-0.01225 -0.55757 0.47527 0.28808 -0.14953 0.94586
-0.26635 -0.37821 0.48484 0.01220 0.04814 0.99877
-0.54287 0.33924 0.06274 0.04293 -0.91445 0.40241
-0.22898 -0.31842 0.48723 -0.02679 -0.99155 0.12694
-0.05709 0.10009 0.49201 0.26135 0.11496 0.95838
0.20448 -0.19885 0.47408 0.01221 0.04814 0.99877
0.42868 0.39903 0.42625 -0.27959 -0.16468 0.94589
0.46605 0.75775 0.41429 0.02919 0.74935 0.66153
-0.23646 -0.85651 0.04839 0.36587 0.41628 0.83238
-0.18414 0.51860 0.05078 0.23594 0.97177 0.00000
-0.09446 0.15988 0.48962 -0.00933 -0.34834 0.93732
0.06995 -0.49779 0.47886 -0.04755 0.67703 0.73442
-0.19909 0.04030 0.48843 -0.06068 0.01123 0.99809
0.33152 0.57839 0.42864 0.01222 0.04815 0.99877
0.02511 -0.43800 0.48245 0.01220 0.04814 0.99877
-0.11688 0.27945 0.48723 -0.10788 0.02923 0.99373
-0.31866 0.51860 0.05557 -0.96934 0.24571 0.00000
0.37636 0.63818 0.42505 0.01222 0.04815 0.99877
-0.49055 0.57839 -0.43589 0.18230 0.89437 0.40850
-0.31866 0.51860 -0.39523 0.19875 0.95135 0.23545
-0.38593 0.15988 0.47288 -0.80536 0.10939 0.58261
-0.40835 0.57839 -0.44306 0.85420 -0.07263 0.51485
-0.51297 -0.19885 0.45255 -0.16548 -0.15163 0.97449
0.37636 0.81754 0.40831 0.39548 0.47215 0.78783
-0.89412 -0.67715 0.05078 0.55865 -0.09355 0.82411
-0.26635 0.51860 -0.37610 0.40751 0.86263 -0.29969
-0.93149 -0.73694 0.03285 0.03140 -0.97812 0.20566
0.66036 0.51860 0.41549 -0.19469 -0.04704 0.97974
-0.67739 0.10009 0.05437 0.00173 0.00667 0.99998
-0.32614 -0.79672 0.04959 -0.25537 -0.51790 0.81644
-0.07951 0.45881 -0.41436 0.48988 0.86047 -0.14002
-0.75960 -0.73694 0.04720 0.56307 0.25301 0.78673
-0.56529 -0.31842 0.07829 0.05526 0.09038 0.99437
0.21195 -0.01949 0.47886 0.21387 -0.58270 0.78404
-0.22151 0.51860 -0.44306 0.50098 0.85573 0.12939
0.14469 0.04030 0.48125 0.37692 -0.25440 0.89062
0.04006 -0.19885 0.48962 -0.42675 0.09408 0.89946
0.21942 0.45881 0.42386 0.15779 0.26100 0.95235
-0.38593 0.15988 0.08666 -0.93362 0.35737 -0.02532
0.16711 0.33924 0.48125 -0.08364 0.02220 0.99625
0.34647 0.75775 0.42027 0.01222 0.04815 0.99877
-0.72223 -0.37821 0.06155 0.00173 0.00667 0.99998
-0.22151 0.51860 0.48006 -0.08842 -0.30529 0.94815
-0.44571 -0.79672 0.05915 0.00170 0.00670 0.99998
-0.63255 0.27945 0.05915 0.00173 0.00667 0.99998
-0.55781 -0.19885 0.07470 0.13978 0.59691 0.79004
-0.58023 -0.73694 0.05317 0.00170 0.00670 0.99998
0.63793 0.39903 0.42027 -0.26785 0.12598 0.95519
0.14469 0.27945 0.47886 -0.52485 -0.04309 0.85011
0.11479 -0.13906 0.48125 -0.57143 -0.58218 0.57839
0.43615 0.57839 0.42744 0.01222 0.04815 0.99877
0.24184 0.63818 0.42505 0.01222 0.04815 0.99877
-0.75212 -0.25864 0.05557 0.00173 0.00667 0.99998
0.45857 0.33924 0.42147 0.17410 0.23146 0.95714
-0.07951 -0.01949 0.49919 0.15238 0.06627 0.98610
-0.39340 -0.73694 0.06274 0.00170 0.00670 0.99998
-0.51297 0.10009 0.06992 0.01994 0.68974 0.72378
0.04753 -0.79672 0.04720 0.36981 0.35718 0.85771
-0.40087 -0.37821 0.48245 0.01220 0.04814 0.99877
0.26426 0.45881 0.42864 -0.25135 -0.38187 0.88938
0.02511 -0.97609 0.03763 -0.61005 -0.65117 -0.45146
0.06248 -0.07927 0.48723 0.22615 -0.02781 0.97370
0.14469 0.63818 0.41549 0.24669 -0.16282 0.95532
0.10732 0.57839 0.41190 0.44657 0.40463 0.79803
-0.15425 0.39903 0.48006 0.18305 0.47321 0.86172
-0.31866 -0.43800 0.47408 0.20856 -0.03741 0.97729
0.16711 0.81754 0.41429 -0.10392 0.64890 0.75375
0.65288 0.69796 0.42027 0.01222 0.04815 0.99877
-0.87917 -0.55757 0.04839 -0.08075 0.27502 0.95804
0.54825 0.39903 0.42984 0.01222 0.04814 0.99877
0.71267 0.57839 0.41907 0.30943 -0.51624 0.79859
-0.13930 -0.85651 0.05437 0.00170 0.00670 0.99998
0.04753 -0.61736 0.47049 -0.85681 -0.51551 0.01099
0.01764 0.39903 0.47647 0.34404 0.34094 0.87487
-0.25888 0.39903 0.47647 -0.04669 0.12540 0.99101
-0.53539 0.04030 0.07350 0.29388 -0.36372 0.88394
-0.46066 -0.43800 0.47886 0.49830 0.18031 0.84805
-0.75212 0.04030 -0.46219 -0.64656 0.02437 -0.76247
0.62299 0.27945 0.42147 0.27819 0.05181 0.95913
0.13721 -0.43800 0.47527 0.05572 0.49522 0.86698
-0.16920 -0.37821 0.48364 0.01220 0.04814 0.99877
-0.20656 0.15988 0.48484 0.26320 -0.26909 0.92646
0.09237 0.69796 0.40831 -0.06932 -0.24914 0.96598
-0.16920 -0.01949 0.49201 -0.31482 -0.37830 0.87051
0.11479 0.39903 0.47408 0.20553 0.04926 0.97741
-0.41582 -0.43800 0.47647 0.20200 0.31222 0.92829
0.27921 0.81754 0.41549 0.01222 0.04815 0.99877
-0.52045 0.27945 0.06513 -0.61142 0.44603 0.65362
-0.73718 -0.61736 0.06394 -0.90591 0.40031 0.13811
0.00269 0.15988 0.49321 0.03437 0.16524 0.98565
0.02511 -0.13906 0.48843 0.68779 -0.16386 0.70718
-0.05709 0.21966 0.48723 0.07187 0.14035 0.98749
0.48847 0.63818 0.41907 0.01222 0.04815 0.99877
0.18206 0.69796 0.41549 -0.25575 0.07455 0.96386
0.23437 0.75775 0.41668 -0.46266 -0.25995 0.84757
-0.22898 0.33924 0.48125 0.05043 0.34938 0.93562
-0.08699 0.51860 0.04839 -0.00779 0.96911 -0.24651
-0.02720 0.04030 0.49321 0.00329 0.13371 0.99101
-0.40835 0.21966 0.08187 -0.96934 0.24571 0.00000
0.18953 0.45881 0.46810 0.00354 0.10851 0.99409
-0.55781 -0.01949 0.07111 0.00456 -0.07062 0.99749
0.60804 0.15988 0.42147 -0.22813 -0.97363 -0.00000
-0.48308 -0.73694 0.05796 0.00170 0.00670 0.99998
-0.49055 -0.37821 0.47767 0.13804 -0.43108 0.89169
-0.63255 -0.37821 0.07350 -0.14563 -0.20139 0.96863
-0.22898 -0.67715 0.07350 -0.35782 0.60074 0.71490
-0.08699 0.51860 -0.44545 0.21774 0.97314 -0.07474
-0.40835 -0.61736 0.07111 0.00170 0.00670 0.99998
-0.52792 -0.13906 0.07948 0.38643 -0.23262 0.89250
0.33900 0.39903 0.46810 0.26026 0.26253 0.92916
-0.49803 -0.25864 0.47647 0.01220 0.04815 0.99877
-0.49055 0.57839 -0.34860 0.30203 0.92346 -0.23663
-0.27382 0.51860 -0.31631 0.09969 0.96943 0.22420
-0.16920 -0.91630 0.03643 0.18479 -0.93457 0.30401
-0.58023 -0.43800 0.08546 -0.96934 0.24571 0.00000
-0.26635 -0.55757 0.45495 -0.24571 -0.96934 -0.00000
-0.37845 0.51860 -0.22065 0.23451 0.95598 -0.17638
-0.67739 -0.55757 0.07589 -0.25860 -0.27048 0.92734
0.18206 -0.37821 0.45734 0.97129 -0.23790 0.00000
-0.07951 0.45881 0.04241 0.15603 0.98577 -0.06251
-0.55034 -0.37821 0.08666 -0.96934 0.24571 0.00000
-0.64750 0.33924 0.05078 0.00173 0.00667 0.99998
-0.70728 0.04030 0.05317 0.00173 0.00667 0.99998
-0.06457 -0.61736 0.45614 0.21258 -0.95482 -0.20766
0.33900 0.21966 0.46451 0.47048 -0.35482 0.80793
-0.22898 0.51860 -0.23978 0.39969 0.80119 0.44535
-0.84928 -0.37821 -0.46100 -0.94617 0.05697 -0.31863
-0.34108 -0.55757 0.46212 -0.15060 -0.91637 -0.37092
-0.61760 0.04030 0.05915 0.00173 0.00667 0.99998
-0.81191 -0.37821 0.05317 -0.00121 0.90941 0.41590
-0.25140 -0.91630 0.04122 -0.23698 -0.97151 -0.00000
-0.46813 -0.01949 0.08068 -0.96934 0.24571 0.00000
-0.78202 -0.13906 -0.46100 -0.93313 0.34779 -0.09118
-0.01973 -0.91630 0.04122 -0.17795 -0.54093 0.82202
0.06248 -0.25864 0.48125 0.01220 0.04814 0.99877
-0.49803 0.21966 0.07350 0.05490 0.07902 0.99536
-0.39340 -0.85651 0.04480 0.44217 0.20699 0.87272
-0.30372 0.51860 -0.44306 -0.06635 0.99779 -0.00431
-0.13930 0.45881 0.06992 0.29960 0.95218 0.05989
-0.58023 0.57839 -0.38566 -0.10995 0.98922 0.09670
-0.54287 -0.79672 0.05078 0.52200 0.27475 0.80748
-0.77454 -0.67715 0.06274 0.00170 0.00670 0.99998
0.05501 0.04030 0.48484 0.18270 -0.37530 0.90872
-0.32614 0.10009 0.47408 0.01220 0.04815 0.99877
-0.38593 0.04030 0.47647 0.01220 0.04815 0.99877
-0.30372 0.04030 0.47886 0.27027 0.66231 0.69878
-0.65497 0.21966 0.05317 0.00173 0.00667 0.99998
-0.72223 -0.07927 0.05317 0.00173 0.00667 0.99998
-0.10941 -0.79672 0.06394 -0.94471 -0.30169 0.12850
-0.28877 0.27945 0.48245 0.13982 -0.35931 0.92268
-0.58023 -0.61736 0.06633 -0.53831 0.76624 0.35086
0.27174 0.10009 0.47169 -0.56727 -0.03666 0.82272
-0.04962 -0.85651 0.05317 0.00170 0.00669 0.99998
-0.78949 -0.43800 0.05317 0.00173 0.00667 0.99998
-0.54287 0.15988 0.06633 0.74056 0.15745 0.65328
-0.64002 -0.01949 0.05796 0.00173 0.00667 0.99998
0.18206 0.21966 0.48245 -0.47311 -0.01755 0.88083
0.10732 0.10009 0.48604 -0.10856 -0.10534 0.98849
-0.46066 -0.07927 0.46571 0.53033 -0.40709 0.74366
0.73509 0.63818 0.41907 0.01222 0.04814 0.99877
-0.52045 -0.49779 0.46571 0.42789 -0.89424 -0.13134
-0.65497 -0.49779 0.07589 -0.28005 0.12255 0.95213
0.57067 0.15988 0.41668 -0.22813 -0.97363 -0.00000
-0.18414 -0.79672 0.06155 0.00170 0.00669 0.99998
-0.07204 0.39903 0.48125 0.27171 0.27006 0.92371
-0.14678 0.10009 0.48962 0.06432 -0.30051 0.95161
-0.10941 0.04030 0.49441 0.00808 0.04914 0.99876
-0.43824 -0.13906 0.47288 0.01220 0.04815 0.99877
0.51836 0.57839 0.42625 0.01222 0.04815 0.99877
-0.50550 -0.61736 0.06752 0.00170 0.00670 0.99998
-0.67739 0.27945 -0.45382 -0.97543 -0.04465 -0.21572
-0.16920 -0.43800 0.48484 0.01220 0.04814 0.99877
-0.09446 -0.43800 0.48245 0.01220 0.04814 0.99877
-0.38593 0.51860 -0.25892 0.13719 0.98914 -0.05268
-0.37845 0.27945 0.07709 -0.96934 0.24571 0.00000
-0.14678 0.21966 0.49082 -0.04052 0.48172 0.87539
-0.10941 -0.55757 0.47169 -0.13150 -0.03756 0.99060
-0.44571 0.39903 0.06992 0.12553 0.05019 0.99082
-0.49803 -0.07927 0.07709 -0.85510 0.50432 -0.12028
-0.32614 0.45881 0.47408 0.29285 0.34462 0.89190
-0.81938 -0.61736 0.05796 0.00173 0.00667 0.99998
-0.32614 -0.07927 0.47527 -0.89462 0.44673 -0.00973
0.68278 0.39903 0.41907 -0.36763 0.07957 0.92656
0.09237 0.21966 0.48723 0.11090 0.21635 0.97000
-0.06457 -0.13906 0.49560 -0.31657 -0.22996 0.92027
-0.23646 0.10009 0.48364 -0.45365 -0.18414 0.87195
0.00269 0.33924 0.47767 -0.07173 -0.34075 0.93741
0.06248 0.63818 0.40831 0.24056 -0.11115 0.96425
-0.54287 -0.43800 0.47288 0.01235 -0.10976 0.99388
-0.49055 0.57839 0.05676 0.00170 0.00667 0.99998
-0.57276 0.21966 0.06752 -0.40419 -0.36817 0.83731
-0.58023 -0.07927 0.06752 0.00170 0.00667 0.99998
-0.90907 -0.55757 -0.46458 -0.97137 0.23758 0.00000
0.63793 0.21966 0.42147 -0.15412 -0.14704 0.97705
0.57067 0.45881 0.42864 0.01222 0.04814 0.99877
0.24184 0.51860 0.42625 0.57476 -0.15249 0.80399
-0.34856 0.15988 0.47647 -0.46225 -0.02166 0.88648
0.42868 0.75775 0.41668 0.71187 -0.37533 0.59361
-0.57276 0.57839 -0.34620 0.30516 0.95084 0.05274
-0.82686 -0.31842 -0.46219 -0.95001 -0.16598 0.26445
-0.86422 -0.61736 -0.46578 -0.25174 -0.02427 -0.96749
0.60057 0.57839 0.42625 0.01222 0.04815 0.99877
0.32405 0.33924 0.47527 -0.13279 -0.17265 0.97599
0.63046 0.75775 0.41429 0.41926 -0.62492 0.65856
-0.05709 -0.73694 0.06872 -0.82410 0.36210 0.43560
0.19700 0.39903 0.47527 -0.09931 0.04846 0.99388
0.18953 0.87733 0.41070 -0.41864 -0.36606 0.83111
-0.24393 -0.13906 0.49201 -0.30540 0.35383 0.88404
0.22690 0.27945 0.48125 0.16763 0.34198 0.92463
0.04006 -0.37821 0.48604 0.01220 0.04814 0.99877
-0.13183 -0.31842 0.48723 0.01220 0.04814 0.99877
-0.34856 0.57839 0.05437 -0.19962 0.95397 0.22383
-0.31866 -0.31842 0.48723 0.14613 -0.98569 0.08400
-0.59518 -0.19885 0.07231 -0.37126 -0.39524 0.84021
-0.08699 0.33924 0.48006 0.10797 0.13998 0.98425
-0.66244 -0.13906 0.06155 0.00173 0.00667 0.99998
-0.78949 -0.31842 0.05078 0.00173 0.00667 0.99998
-0.66992 0.21966 -0.45502 0.03582 0.12596 -0.99139
-0.72223 0.15988 -0.45861 -0.69476 -0.68832 0.20859
-0.30372 -0.19885 0.48843 0.01220 0.04814 0.99877
0.63793 0.63818 0.42266 0.01222 0.04815 0.99877
0.24932 0.33924 0.47527 0.17894 0.04806 0.98268
0.16711 0.51860 0.41788 0.07367 -0.24089 0.96775
-0.22898 0.21966 0.48245 -0.00888 -0.33893 0.94077
0.08490 0.15988 0.48723 -0.00030 0.08238 0.99660
0.14469 -0.25864 0.47886 0.01221 0.04814 0.99877
-0.42329 0.51860 0.05915 -0.12758 0.94685 0.29530
-0.43077 0.33924 0.07231 0.05065 0.06686 0.99648
-0.41582 -0.25864 0.47886 0.01220 0.04814 0.99877
-0.43824 -0.67715 0.06394 0.00170 0.00670 0.99998
-0.67739 -0.73694 0.05437 0.00170 0.00670 0.99998
-0.46813 0.15988 0.07829 -0.14495 -0.33795 0.92993
0.24184 0.04030 0.47408 0.32067 -0.65384 0.68532
-0.31119 0.57839 -0.44187 0.47819 0.87762 0.03338
0.25679 0.21966 0.47527 0.18494 0.09814 0.97784
-0.22898 -0.25864 0.49560 0.42583 -0.48270 0.76529
-0.22898 -0.49779 0.47647 0.19683 0.14987 0.96892
-0.22898 0.51860 0.05437 0.24221 0.96397 0.11002
0.01017 0.69796 0.40473 -0.97091 0.23944 0.00000
0.30163 0.15988 0.47288 -0.32669 -0.14621 0.93375
-0.30372 0.51860 0.47288 -0.50799 -0.26301 0.82023
-0.39340 -0.31842 0.48364 0.01220 0.04814 0.99877
-0.70728 -0.31842 0.06155 0.00173 0.00667 0.99998
-0.79696 -0.25864 -0.45980 0.12860 0.06634 -0.98947
0.35394 0.45881 0.42984 -0.60287 -0.45167 0.65767
-0.31119 -0.49779 0.47408 0.47401 0.09161 0.87574
0.53331 0.81754 0.40951 0.23692 0.97153 -0.00000
0.22690 0.15988 0.47408 0.01582 0.13403 0.99085
0.12227 -0.01949 0.48245 0.56597 0.07636 0.82088
-0.20656 0.27945 0.48364 0.09997 0.15361 0.98306
0.60804 0.33924 0.42147 0.25402 -0.40903 0.87645
-0.34856 0.39903 0.47049 0.09866 0.72184 0.68500
-0.17667 0.51860 -0.44187 0.23594 0.97177 -0.00000
-0.41582 0.57839 -0.39045 -0.73539 0.40366 -0.54430
0.15964 -0.49779 0.46930 -0.00166 -0.29590 0.95522
-0.10193 -0.91630 0.03524 0.18257 -0.30556 0.93450
-0.52792 -0.31842 0.46930 -0.99958 -0.01370 0.02539
-0.34108 0.51860 -0.36653 0.08654 0.99559 0.03611
-0.83433 -0.25864 0.03165 -0.97137 0.23758 0.00000
0.45110 0.81754 0.41190 0.35406 0.50941 0.78431
-0.86422 -0.43800 0.03883 -0.86612 0.16268 0.47263
-0.02720 -0.79672 0.06394 -0.64028 0.76145 0.10124
-0.45319 0.57839 -0.44306 -0.09920 0.85395 -0.51082
-0.73718 -0.13906 0.04720 0.30003 -0.46413 0.83341
0.02511 0.21966 0.49201 -0.18710 -0.01088 0.98228
-0.35603 -0.79672 0.05915 0.00170 0.00670 0.99998
0.74256 0.51860 0.40831 0.97327 -0.22965 0.00000
0.07743 -0.85651 0.03285 -0.41207 0.02443 0.91083
-0.61013 -0.79672 0.02926 -0.15812 0.07889 0.98426
0.12227 -0.61736 0.46451 -0.28493 -0.95336 0.09955
-0.42329 0.10009 0.08546 -0.35749 0.85392 -0.37818
-0.19162 0.45881 0.07231 0.21466 0.97668 -0.00366
-0.84180 -0.49779 0.05078 0.00173 0.00667 0.99998
-0.70728 -0.67715 0.06394 0.00170 0.00670 0.99998
0.67530 0.57839 0.41788 0.29422 -0.52818 0.79653
0.05501 -0.91630 0.04480 -0.29021 0.32937 0.89850
0.21195 -0.13906 0.47767 0.01221 0.04814 0.99877
0.01017 -0.61736 0.46930 -0.24571 -0.96934 -0.00000
0.29416 0.39903 0.47408 -0.27681 -0.17343 0.94514
0.06248 -0.43800 0.48006 0.01220 0.04814 0.99877
0.39879 0.51860 0.43701 0.01222 0.04815 0.99877
-0.52792 -0.31842 0.08426 -0.80959 -0.30189 0.50341
0.49594 0.45881 0.43462 -0.31885 -0.87965 0.35293
0.53331 0.33924 0.42386 -0.21678 0.31392 0.92437
-0.79696 -0.55757 0.05796 0.00173 0.00667 0.99998
0.14469 -0.07927 0.48245 -0.26553 0.01723 0.96395
-0.43077 -0.01949 0.46930 0.01220 0.04815 0.99877
-0.37098 -0.67715 0.07231 0.00170 0.00670 0.99998
-0.66992 0.15988 0.05317 0.00173 0.00667 0.99998
0.51089 0.21966 0.42147 0.26870 0.27599 0.92284
-0.57276 -0.67715 0.06035 0.00170 0.00670 0.99998
-0.85675 -0.73694 0.04002 -0.47691 -0.31494 0.82059
-0.05709 -0.43800 0.47647 -0.39728 0.06507 0.91539
0.12227 -0.19885 0.48245 0.01221 0.04814 0.99877
0.04006 0.10009 0.48604 -0.23108 0.30757 0.92304
-0.12436 0.15988 0.49560 -0.06187 0.15683 0.98569
-0.24393 -0.01949 0.48125 -0.16058 -0.76995 0.61757
-0.01973 -0.25864 0.48723 0.01220 0.04814 0.99877
0.16711 -0.43800 0.46212 0.56825 0.63309 0.52563
0.04006 0.27945 0.48484 -0.27965 -0.08785 0.95608
-0.44571 0.04030 0.07829 -0.96934 0.24571 0.00000
0.46605 0.51860 0.42864 0.01222 0.04815 0.99877
0.51089 0.39903 0.42984 0.68443 0.03997 0.72798
0.54825 0.27945 0.41907 -0.01737 0.39798 0.91723
-0.74465 -0.79672 0.04361 -0.23698 -0.97151 -0.00000
-0.61013 0.51860 0.05317 0.00173 0.00667 0.99998
-0.43824 -0.19885 0.47527 0.01220 0.04815 0.99877
-0.72223 -0.19885 0.05676 0.00173 0.00667 0.99998
0.39879 0.27945 0.41549 0.32837 -0.33077 0.88474
0.01764 -0.73694 0.05557 0.00170 0.00669 0.99998
0.00269 -0.01949 0.49082 -0.13997 0.05764 0.98848
-0.25140 -0.73694 0.06394 0.00170 0.00670 0.99998
-0.42329 0.57839 0.04959 0.00170 0.00667 0.99998
0.48099 0.27945 0.41668 -0.43422 -0.06183 0.89868
-0.64002 -0.67715 0.05317 0.00170 0.00670 0.99998
0.31658 0.51860 0.43103 0.01222 0.04815 0.99877
-0.01973 -0.07927 0.48843 -0.12484 0.20795 0.97014
0.19700 0.10009 0.48006 0.25389 -0.29250 0.92194
-0.53539 -0.25864 0.08068 -0.96934 0.24571 0.00000
-0.09446 0.45881 -0.38806 0.14762 0.97684 -0.15492
0.39131 0.21966 0.41429 -0.22813 -0.97363 -0.00000
-0.39340 -0.49779 0.47408 -0.20109 -0.97952 0.01009
0.56320 0.75775 0.41549 0.01222 0.04815 0.99877
0.31658 0.75775 0.41668 0.61324 -0.22423 0.75740
-0.07951 -0.25864 0.49680 0.54351 0.36923 0.75384
-0.19909 0.45881 0.48006 0.04983 -0.05988 0.99696
-0.19909 -0.31842 0.49082 0.01220 0.04814 0.99877
-0.58023 0.39903 0.05796 0.00170 0.00667 0.99998
-0.45319 -0.49779 0.47408 -0.24571 -0.96934 -0.00000
-0.58771 0.10009 0.06155 0.00170 0.00667 0.99998
-0.65497 0.33924 -0.45024 -0.91860 0.23447 0.31810
-0.86422 -0.43800 -0.46219 -0.63498 0.20989 0.74347
-0.15425 -0.49779 0.48245 0.73580 0.06134 0.67441
0.73509 0.69796 0.41668 0.09496 0.88873 0.44848
0.09985 0.51860 0.41310 -0.14036 0.00927 0.99006
-0.08699 -0.49779 0.47886 0.18853 -0.07199 0.97943
0.10732 0.45881 0.46930 0.04569 -0.10023 0.99391
0.17458 0.04030 0.48484 -0.19476 0.01452 0.98074
0.08490 -0.31842 0.47886 0.01220 0.04814 0.99877
-0.08699 -0.37821 0.48962 0.87387 0.46089 0.15468
-0.24393 -0.43800 0.48125 0.01220 0.04814 0.99877
0.34647 0.39903 0.42984 0.20333 0.56837 0.79726
0.57067 0.63818 0.42147 0.01222 0.04815 0.99877
-0.86422 -0.67715 0.05557 0.00173 0.00667 0.99998
-0.31866 -0.73694 0.05557 -0.88938 0.17593 0.42195
-0.43077 0.45881 0.06513 -0.40445 0.50363 0.76340
-0.64002 0.39903 0.05198 0.00173 0.00667 0.99998
-0.67739 -0.25864 0.06274 0.00173 0.00667 0.99998
-0.87917 -0.49779 -0.46458 -0.64412 0.73792 -0.20147
0.30163 0.57839 0.43103 0.60734 0.72313 0.32896
-0.14678 -0.25864 0.48962 0.01220 0.04814 0.99877
0.12974 0.33924 0.47647 -0.25515 -0.40247 0.87915
-0.23646 0.04030 0.48843 -0.17183 0.42357 0.88942
0.23437 0.57839 0.42386 -0.21857 0.60799 0.76327
0.24184 0.81754 0.41549 0.01222 0.04815 0.99877
0.12227 0.87733 0.41070 0.01630 0.29361 0.95579
-0.13183 -0.73694 0.07589 0.10083 -0.36644 0.92496
-0.06457 -0.31842 0.48723 0.01220 0.04814 0.99877
0.15216 0.75775 0.41310 -0.43211 -0.16237 0.88708
0.06995 0.57839 0.41070 -0.32611 -0.10275 0.93973
0.29416 0.27945 0.47647 0.30190 0.46816 0.83047
0.52583 0.51860 0.43223 0.01222 0.04815 0.99877
-0.30372 -0.37821 0.48245 0.01220 0.04814 0.99877
-0.61013 -0.25864 0.06872 0.00173 0.00667 0.99998
-0.29624 0.21966 0.48245 0.12171 0.26140 0.95753
0.22690 0.39903 0.47288 -0.08676 0.37056 0.92475
-0.19162 -0.07927 0.49441 0.05002 0.44257 0.89534
-0.21404 -0.19885 0.49441 0.03086 -0.14121 0.98950
-0.13930 0.45881 0.47767 -0.21752 0.05513 0.97450
0.12974 0.45881 0.41788 0.26638 -0.11128 0.95742
0.20448 -0.07927 0.47767 0.01221 0.04814 0.99877
-0.07204 0.45881 0.48006 0.20128 0.06392 0.97744
-0.02720 0.10009 0.49441 0.03805 -0.02562 0.99895
-0.17667 -0.55757 0.47408 -0.44302 -0.78219 -0.43807
0.21942 0.87733 0.41310 0.01222 0.04815 0.99877
0.06248 0.75775 0.40353 -0.22867 0.39220 0.89101
0.09237 0.81754 0.40951 -0.54303 -0.11303 0.83207
0.34647 0.63818 0.42625 0.01222 0.04815 0.99877
-0.55034 0.51860 0.06035 0.00170 0.00667 0.99998
-0.65497 -0.43800 0.06752 0.00173 0.00667 0.99998
-0.60265 -0.55757 0.07948 -0.06737 -0.12174 0.99027
-0.29624 0.51860 -0.25055 0.07454 0.99661 -0.03480
0.69772 0.45881 0.42027 -0.24706 0.46820 0.84838
-0.91654 -0.67715 -0.46937 -0.75835 0.64935 -0.05697
0.51089 0.69796 0.41907 0.66028 -0.41382 0.62672
0.45857 0.63818 0.42386 0.01222 0.04815 0.99877
0.28668 0.63818 0.42386 0.01222 0.04815 0.99877
-0.03467 0.27945 0.48484 0.20089 -0.03173 0.97910
-0.01225 -0.49779 0.48245 0.01220 0.04814 0.99877
0.10732 0.27945 0.48006 0.09723 0.36030 0.92775
0.02511 -0.31842 0.48484 0.01220 0.04814 0.99877
-0.36350 0.45881 0.05915 -0.32182 0.87281 0.36691
0.42121 0.45881 0.42864 -0.32625 -0.40326 0.85495
-0.65497 -0.61736 0.07350 0.28571 -0.61810 0.73234
-0.75960 -0.07927 -0.45980 -0.95412 0.11463 -0.27662
-0.46066 0.33924 0.07231 0.18312 0.17729 0.96697
-0.57276 0.57839 0.05317 0.00170 0.00667 0.99998
-0.71476 -0.01949 0.05557 0.00173 0.00667 0.99998
-0.61013 0.15988 0.05915 0.00173 0.00667 0.99998
-0.15425 -0.19885 0.49321 -0.34814 0.19835 0.91622
-0.28130 0.15988 0.48125 0.41885 0.07549 0.90491
-0.37098 -0.13906 0.47767 0.98610 -0.15251 0.06600
0.57067 0.69796 0.41788 0.01222 0.04815 0.99877
-0.09446 -0.19885 0.49680 -0.04860 0.04680 0.99772
-0.37845 0.39903 0.06992 -0.27760 -0.25543 0.92612
-0.41582 0.51860 -0.26609 0.17725 0.97622 -0.12479
0.45110 0.21966 0.41429 0.07856 -0.90652 -0.41479
-0.55034 0.45881 0.06155 0.00170 0.00667 0.99998
-0.64750 -0.07927 0.05796 0.00173 0.00667 0.99998
-0.78202 -0.49779 0.05915 0.00173 0.00667 0.99998
0.65288 0.27945 0.42147 -0.07668 -0.05517 0.99553
-0.15425 -0.07927 0.52071 0.07686 0.09617 0.99239
-0.09446 0.45881 -0.25294 0.40470 0.91094 0.08010
-0.36350 0.33924 0.47049 -0.19626 -0.32831 0.92396
-0.24393 -0.79672 0.06752 -0.44055 -0.84222 0.31078
0.11479 -0.79672 0.02687 0.80265 -0.55414 -0.22065
-0.59518 0.57839 -0.40838 -0.92573 0.37395 0.05644
-0.78949 -0.19885 0.04839 0.02929 0.75878 0.65069
-0.88665 -0.61736 0.04959 -0.35405 0.14529 0.92387
-0.12436 0.45881 -0.26489 0.17771 0.98277 0.05085
-0.19162 0.39903 0.48604 0.18371 0.10449 0.97741
-0.51297 -0.73694 0.06035 0.00170 0.00670 0.99998
-0.78949 -0.73694 0.05078 0.00170 0.00670 0.99998
-0.33361 -0.85651 0.04839 -0.28629 -0.18233 0.94064
0.34647 0.27945 0.45255 0.01222 0.04815 0.99877
-0.44571 0.57839 -0.38686 0.23594 0.97177 -0.00000
-0.21404 -0.55757 0.47886 -0.92101 -0.26372 -0.28668
-0.83433 -0.73694 0.05078 0.44232 0.19936 0.87442
-0.71476 -0.61736 0.07470 -0.13222 0.32653 0.93589
0.12227 -0.37821 0.48125 0.01220 0.04814 0.99877
-0.35603 0.33924 0.07350 -0.95226 -0.06405 -0.29850
-0.55781 -0.85651 0.02687 -0.32525 -0.79300 0.51514
-0.29624 -0.67715 0.06513 0.00170 0.00669 0.99998
0.39879 0.39903 0.42505 0.16966 -0.17044 0.97065
-0.47561 0.10009 0.06872 0.00170 0.00667 0.99998
0.57815 0.51860 0.42744 0.01222 0.04815 0.99877
0.18206 0.45881 0.42386 0.35390 -0.13034 0.92616
-0.43824 0.27945 0.07350 0.27853 -0.26726 0.92249
-0.79696 -0.67715 0.05557 0.91028 -0.14024 0.38952
-0.14678 -0.91630 0.02926 -0.35814 -0.92517 0.12565
-0.35603 0.27945 0.47169 -0.37510 -0.40800 0.83237
-0.49803 0.51860 0.05557 0.00170 0.00667 0.99998
-0.11688 0.45881 0.06394 0.43283 0.90107 -0.02687
-0.40835 0.15988 0.46690 0.01220 0.04815 0.99877
-0.35603 0.21966 0.47288 -0.56351 -0.40230 0.72153
0.54078 0.75775 0.40951 0.06681 0.04465 0.99677
-0.07951 -0.91630 0.04361 0.34607 -0.05877 0.93637
0.12974 -0.55757 0.47288 0.08571 0.28892 0.95351
-0.23646 0.39903 0.48245 0.30775 0.01142 0.95140
0.14469 0.15988 0.48364 -0.12032 -0.37040 0.92105
0.70520 0.63818 0.41907 0.01222 0.04814 0.99877
-0.90907 -0.73694 0.04122 -0.36408 -0.89394 -0.26136
-0.70728 -0.43800 0.06394 0.00173 0.00667 0.99998
-0.28877 -0.25864 0.48962 0.01220 0.04814 0.99877
0.68278 0.69796 0.41788 0.01222 0.04815 0.99877
-0.03467 -0.55757 0.48006 -0.36694 -0.11848 0.92267
0.18953 -0.01949 0.47408 0.01221 0.04814 0.99877
0.04753 -0.49779 0.48364 0.44149 0.80062 0.40508
-0.08699 -0.79672 0.07111 0.00170 0.00669 0.99998
0.17458 0.57839 0.42027 0.05501 -0.58204 0.81130
-0.09446 0.27945 0.48245 0.14104 0.30221 0.94275
0.20448 0.69796 0.42027 0.01082 0.61443 0.78889
-0.62507 0.33924 0.05557 0.78135 0.62396 0.01270
-0.77454 -0.25864 0.05078 0.00173 0.00667 0.99998
-0.35603 -0.01949 0.48006 0.01220 0.04815 0.99877
-0.49055 0.57839 -0.41317 0.40919 0.89054 -0.19874
0.37636 0.51860 0.43342 0.01222 0.04815 0.99877
0.29416 0.87733 0.41549 0.23692 0.97153 -0.00000
-0.07951 0.21966 0.49082 0.21801 -0.01897 0.97576
-0.01225 0.45881 0.47169 -0.18120 0.13414 0.97425
-0.20656 -0.85651 0.04720 0.14147 0.12652 0.98182
0.48847 0.75775 0.41788 0.38672 -0.74711 0.54062
-0.66244 -0.79672 0.04241 -0.14071 -0.05652 0.98844
-0.91654 -0.67715 0.04720 -0.38526 -0.13494 0.91289
-0.28877 -0.49779 0.47886 -0.56152 0.11114 0.81996
-0.49055 -0.19885 0.46690 -0.31039 -0.08540 0.94677
-0.56529 0.57839 -0.43469 0.17279 0.98201 0.07615
-0.13930 0.27945 0.48364 0.28116 -0.04383 0.95866
-0.07951 0.10009 0.49560 -0.06919 -0.05616 0.99602
-0.03467 -0.73694 0.06513 0.00170 0.00669 0.99998
0.23437 -0.01949 0.47527 0.01221 0.04814 0.99877
0.04006 0.51860 0.41668 -0.18436 0.12477 0.97491
-0.16172 -0.85651 0.05796 0.00170 0.00670 0.99998
0.20448 0.15988 0.48006 0.24388 0.09748 0.96489
-0.18414 -0.13906 0.49799 0.27981 -0.41791 0.86433
-0.25888 -0.07927 0.48604 -0.33601 -0.56919 0.75042
0.75751 0.69796 0.41310 0.01222 0.04814 0.99877
-0.49803 0.27945 0.06752 -0.07575 -0.73320 0.67578
-0.46813 -0.31842 0.47647 0.32889 -0.49324 0.80532
-0.46813 -0.37821 0.48006 0.01220 0.04814 0.99877
0.60057 0.27945 0.41907 0.07237 -0.18198 0.98064
0.38384 0.33924 0.41907 -0.05026 -0.13348 0.98978
0.13721 -0.13906 0.48364 0.01221 0.04814 0.99877
-0.55781 -0.73694 0.05557 0.00170 0.00670 0.99998
-0.81191 -0.43800 0.04839 0.26853 -0.49549 0.82606
-0.76707 -0.01949 -0.45980 -0.97137 0.23758 0.00000
0.57815 0.21966 0.41668 -0.36753 0.22310 0.90286
0.17458 -0.25864 0.47408 0.01221 0.04814 0.99877
0.45857 0.27945 0.42027 -0.02010 0.14434 0.98932
0.39879 0.63818 0.42266 0.01222 0.04815 0.99877
0.39879 0.81754 0.41070 0.20249 -0.40249 0.89275
0.17458 0.63818 0.41668 0.41659 0.26230 0.87044
-0.07204 -0.85651 0.05557 0.00170 0.00669 0.99998
-0.01225 0.27945 0.48125 0.03284 -0.10558 0.99387
0.18206 -0.19885 0.47647 0.01221 0.04814 0.99877
-0.11688 -0.85651 0.05676 0.00170 0.00670 0.99998
-0.25140 -0.67715 0.07111 0.54264 -0.43671 0.71752
0.24184 0.45881 0.42625 0.02257 0.11973 0.99255
0.15964 0.21966 0.48484 0.05980 0.27376 0.95994
-0.07951 -0.07927 0.49560 -0.28052 0.25185 0.92622
0.11479 0.69796 0.41070 0.24661 -0.09937 0.96401
0.33152 0.45881 0.42744 -0.01435 -0.04691 0.99880
-0.51297 -0.85651 0.03404 -0.23698 -0.97151 -0.00000
-0.52045 0.33924 0.06513 0.00170 0.00667 0.99998
0.62299 0.57839 0.42386 0.01222 0.04815 0.99877
0.25679 0.69796 0.42027 -0.58754 0.28635 0.75684
0.45110 0.69796 0.42266 0.01222 0.04815 0.99877
0.31658 0.69796 0.42266 0.01222 0.04815 0.99877
-0.42329 -0.37821 0.48006 0.81317 0.31149 0.49165
-0.46066 -0.73694 0.05915 0.00170 0.00670 0.99998
-0.40087 0.51860 0.05796 0.00170 0.00667 0.99998
-0.31866 0.51860 -0.24457 0.21433 0.97162 -0.10013
0.69025 0.51860 0.41668 0.12879 -0.05710 0.99003
0.27174 0.87733 0.41310 0.01222 0.04815 0.99877
0.00269 -0.25864 0.49082 0.01220 0.04814 0.99877
0.06248 -0.55757 0.48006 -0.14581 -0.22049 0.96443
0.01017 0.57839 0.40473 -0.97062 0.17718 -0.16281
-0.37098 0.57839 -0.44426 0.23594 0.97177 -0.00000
-0.60265 0.45881 0.05437 0.00170 0.00667 0.99998
-0.54287 0.27945 0.06394 0.00170 0.00667 0.99998
-0.51297 -0.37821 0.47886 -0.59039 -0.21683 0.77745
-0.34108 0.51860 0.05437 0.00170 0.00667 0.99998
0.66783 0.33924 0.42027 0.07661 -0.28714 0.95482
-0.18414 0.15988 0.48604 0.05181 0.35120 0.93486
-0.29624 0.33924 0.48125 -0.29013 0.04537 0.95591
-0.37845 -0.37821 0.48125 0.01220 0.04814 0.99877
0.13721 0.39903 0.47288 -0.25258 -0.15533 0.95503
-0.31866 -0.13906 0.48484 0.01220 0.04814 0.99877
-0.06457 -0.97609 0.03285 -0.53775 -0.42410 0.72867
0.09237 -0.13906 0.48604 0.18775 -0.29589 0.93659
-0.04215 -0.31842 0.48604 0.01220 0.04814 0.99877
-0.04215 -0.19885 0.49441 0.38325 0.19262 0.90334
0.02511 -0.79672 0.05317 0.00170 0.00669 0.99998
0.05501 0.75775 -0.44067 -0.90251 -0.09112 -0.42092
-0.20656 -0.49779 0.47527 -0.60321 0.05453 0.79572
0.12227 0.04030 0.48006 -0.23298 0.31297 0.92074
-0.25140 0.33924 0.48006 0.16667 -0.16080 0.97281
-0.31119 -0.85651 0.04600 0.48113 -0.09716 0.87125
-0.72970 -0.43800 0.06394 -0.83997 0.51376 0.17463
-0.64750 0.10009 0.05796 0.00173 0.00667 0.99998
-0.78949 -0.37821 0.05317 0.00173 0.00667 0.99998
0.64541 0.45881 0.42147 0.43840 -0.07201 0.89589
-0.29624 -0.43800 0.47767 -0.07995 0.33632 0.93835
-0.40835 0.04030 0.47647 0.01220 0.04815 0.99877
0.66036 0.63818 0.42386 0.49214 0.81948 0.29370
0.54078 0.57839 0.42386 0.01222 0.04815 0.99877
0.36142 0.57839 0.42984 0.01222 0.04815 0.99877
0.10732 -0.67715 0.45973 -0.18992 -0.94840 -0.25390
0.09237 0.93711 0.40473 0.23692 0.97153 -0.00000
0.00269 -0.13906 0.48843 -0.48526 -0.19737 0.85180
-0.19909 -0.73694 0.06872 0.00170 0.00669 0.99998
-0.13183 -0.67715 0.07231 0.00170 0.00669 0.99998
0.09985 -0.37821 0.47886 0.01220 0.04814 0.99877
-0.17667 0.04030 0.48843 0.23481 0.20722 0.94970
-0.29624 0.51860 0.05557 -0.97394 0.13481 0.18237
0.28668 0.45881 0.42864 0.29373 -0.06615 0.95360
0.42868 0.33924 0.42147 0.12622 0.40434 0.90586
-0.30372 -0.01949 0.48006 -0.73768 -0.33575 0.58574
0.47352 0.81754 0.41190 0.01222 0.04815 0.99877
-0.90907 -0.73694 -0.47176 -0.17777 -0.97232 -0.15161
-0.52045 -0.07927 0.07231 0.49061 -0.10192 0.86540
0.40626 0.81754 0.44179 -0.30635 0.07623 0.94886
0.01017 0.51860 0.42027 0.02957 0.03692 0.99888
-0.35603 0.39903 0.45136 -0.37367 -0.50904 -0.77540
-0.45319 -0.01949 0.46451 0.01220 0.04815 0.99877
-0.40835 0.21966 0.45255 -0.96934 0.24571 0.00000
-0.32614 0.51860 0.46332 -0.26233 -0.47979 -0.83724
-0.22898 0.51860 -0.37132 0.62880 0.77617 0.04670
0.19700 -0.43800 0.01611 0.17204 0.58615 -0.79173
-0.46813 -0.85651 0.04002 -0.23698 -0.97151 -0.00000
-0.69981 -0.79672 0.02687 0.61894 -0.77114 0.14919
0.37636 0.75775 0.42505 0.01222 0.04815 0.99877
-0.52792 0.57839 -0.42752 0.11738 0.99099 -0.06450
-0.13930 0.45881 -0.39164 0.19138 0.97650 0.09914
-0.13183 -0.55757 0.46451 -0.45507 -0.85680 -0.24250
0.01017 -0.91630 0.04241 -0.43859 0.11049 0.89187
0.33900 0.39903 0.45016 0.01222 0.04815 0.99877
-0.72970 0.04030 0.05078 0.00173 0.00667 0.99998
-0.55781 -0.43800 0.46332 -0.76738 -0.52612 -0.36651
0.06248 0.45881 0.46332 0.08274 -0.21574 0.97294
-0.09446 -0.25864 0.48723 0.01220 0.04814 0.99877
-0.43824 -0.49779 0.46451 -0.24571 -0.96934 -0.00000
-0.61013 0.57839 -0.37729 -0.94525 -0.26260 0.19377
-0.87917 -0.49779 0.04839 -0.37575 0.40033 0.83579
-0.49803 0.10009 0.07829 -0.36294 -0.15929 0.91810
0.61551 0.63818 0.41549 0.21227 -0.40716 0.88835
-0.50550 -0.79672 0.05437 0.00170 0.00670 0.99998
-0.66992 -0.49779 0.06752 0.80496 0.43648 0.40190
-0.55034 -0.37821 0.45853 -0.96934 0.24571 0.00000
-0.63255 -0.43800 0.07709 0.18927 0.19079 0.96321
0.12227 0.45881 0.45614 0.35685 -0.48318 0.79950
-0.35603 -0.19885 0.47886 0.01220 0.04814 0.99877
-0.20656 -0.79672 0.06035 0.00170 0.00670 0.99998
-0.19162 -0.67715 0.06872 0.00170 0.00669 0.99998
-0.37098 -0.79672 0.05078 0.00170 0.00670 0.99998
-0.59518 0.15988 0.06752 -0.47655 -0.50894 0.71686
-0.72970 -0.49779 0.06992 0.00173 0.00667 0.99998
-0.62507 -0.79672 0.04600 0.48889 0.13770 0.86141
-0.64750 0.27945 0.05198 0.00173 0.00667 0.99998
-0.09446 -0.55757 0.47886 0.40161 -0.35940 0.84234
0.10732 -0.43800 0.48006 0.59987 0.63189 0.49079
0.00269 -0.85651 0.05198 0.00170 0.00669 0.99998
-0.11688 -0.91630 0.02806 -0.21709 -0.97066 0.10341
0.15216 0.45881 0.45734 0.17149 0.64154 0.74767
-0.01225 -0.37821 0.49082 0.01220 0.04814 0.99877
-0.65497 -0.31842 0.06872 0.00173 0.00667 0.99998
-0.68486 0.21966 0.04959 -0.88054 0.25860 0.39721
-0.44571 0.04030 0.45495 -0.96934 0.24571 0.00000
0.24932 0.15988 0.48006 -0.26457 0.13612 0.95471
-0.59518 -0.61736 0.07231 -0.06445 0.79952 0.59717
-0.05709 -0.55757 0.47169 0.09348 0.05636 0.99403
-0.12436 0.45881 0.47169 0.31246 0.06663 0.94759
-0.10941 -0.43800 0.48843 0.01220 0.04814 0.99877
0.62299 0.15988 0.41549 -0.22813 -0.97363 -0.00000
-0.25140 0.21966 0.47767 0.02223 -0.06042 0.99793
-0.13183 0.10009 0.49560 -0.07461 -0.00915 0.99717
0.43615 0.69796 0.41668 0.20835 0.45846 0.86395
-0.60265 -0.07927 0.07111 -0.41432 -0.44296 0.79506
-0.75212 -0.67715 0.04959 0.11974 -0.24201 0.96286
-0.72970 -0.73694 0.04959 -0.37757 -0.57381 0.72676
-0.81191 -0.31842 0.04361 0.22526 0.31927 0.92050
-0.83433 -0.37821 0.04959 0.00173 0.00667 0.99998
-0.72970 -0.01949 0.04959 0.00173 0.00667 0.99998
-0.54287 -0.13906 0.07350 0.16711 -0.30810 0.93656
-0.01225 0.39903 0.47886 -0.38960 0.00313 0.92098
0.31658 0.21966 0.46930 0.09601 0.54435 0.83335
-0.26635 -0.01949 0.48604 -0.34107 -0.40525 0.84820
0.04753 -0.73694 0.05198 0.00170 0.00669 0.99998
-0.01225 -0.79672 0.05796 0.00170 0.00669 0.99998
0.17458 -0.55757 -0.39045 0.94760 0.16891 0.27114
0.27174 0.33924 0.47886 0.07808 0.12090 0.98959
-0.41582 0.10009 0.47288 0.01220 0.04815 0.99877
-0.28877 0.04030 0.48484 -0.11208 0.60826 0.78579
-0.52045 -0.67715 0.06035 0.00170 0.00670 0.99998
-0.64750 0.04030 0.06274 0.08290 -0.91863 0.38632
-0.41582 -0.67715 0.06992 0.00170 0.00670 0.99998
-0.84928 -0.43800 0.04600 0.05041 -0.11709 0.99184
-0.46813 -0.61736 0.07111 0.00170 0.00670 0.99998
-0.69234 -0.73694 0.04959 0.29691 0.17284 0.93913
-0.69981 -0.61736 0.06752 0.00170 0.00670 0.99998
-0.49055 -0.61736 0.07231 0.00170 0.00670 0.99998
-0.37845 -0.73694 0.05796 0.00170 0.00670 0.99998
-0.75960 -0.49779 0.05796 0.00173 0.00667 0.99998
-0.44571 -0.07927 0.47049 0.01220 0.04815 0.99877
0.58562 0.57839 0.43103 0.98945 0.11280 0.09093
0.15964 0.15988 0.47886 -0.30972 -0.44013 0.84283
-0.26635 -0.13906 0.48962 0.52240 -0.34682 0.77898
-0.36350 0.04030 0.47886 0.01220 0.04815 0.99877
-0.40835 -0.07927 0.47647 0.01220 0.04815 0.99877
0.01017 -0.31842 0.48962 0.01220 0.04814 0.99877
0.05501 -0.13906 0.49201 0.30417 0.27431 0.91227
-0.10941 -0.31842 0.48484 0.78284 -0.61943 0.05890
0.07743 0.21966 0.48245 0.03535 0.01407 0.99928
-0.09446 0.39903 0.48125 0.11760 -0.01122 0.99300
-0.37098 0.33924 0.06872 -0.96934 0.24571 0.00000
0.29416 0.75775 0.42027 0.01222 0.04815 0.99877
-0.64002 0.45881 -0.37849 -0.80476 0.17225 -0.56806
-0.38593 -0.13906 0.48245 0.01220 0.04814 0.99877
0.27174 0.39903 0.46690 -0.19929 -0.21941 0.95506
-0.14678 -0.43800 0.48245 0.01220 0.04814 0.99877
-0.69234 -0.67715 0.05915 0.00170 0.00670 0.99998
-0.04962 -0.79672 0.06155 0.00170 0.00669 0.99998
0.17458 0.27945 0.48006 -0.25133 -0.16781 0.95324
-0.13930 -0.49779 0.47767 -0.20452 0.06145 0.97693
-0.31119 0.21966 0.47767 0.13990 0.15026 0.97870
0.27921 0.69796 0.42505 0.01222 0.04815 0.99877
-0.30372 -0.73694 0.06155 0.00170 0.00670 0.99998
-0.41582 -0.85651 0.03643 -0.22118 -0.95030 0.21912
0.48847 0.33924 0.42027 -0.11320 0.09308 0.98920
-0.29624 -0.13906 0.48843 0.01220 0.04814 0.99877
-0.31866 -0.01949 0.47647 0.87956 0.37890 0.28778
-0.62507 -0.49779 0.07709 -0.24843 0.28799 0.92485
-0.55034 -0.25864 0.07709 0.24295 0.00010 0.97004
